4.031349850008226765e-01 -5.279454580316019774e-01 -7.474996837539055194e-01
6.113230991731075648e-01 -7.793335697489424119e-01 1.375618242091793952e-01
-2.862352612731807189e-01 6.178231276899054381e-01 -7.323687309650356303e-01
5.169590336477726192e-05 2.216661754871876999e-01 -9.751226097124489067e-01
8.455122445301708201e-01 4.643100122405004471e-01 -2.636764245866115020e-01
8.442579090699664501e-01 8.586843112560117730e-02 -5.290134171349876180e-01
9.689040685827645660e-01 -1.433130287182497464e-01 2.017084075673782617e-01
-6.580393643123997327e-01 -2.374650649909217648e-01 7.145589814173426424e-01
6.902840866264062791e-01 -5.614801310676899027e-01 4.563419136640398666e-01
9.226988586220457034e-01 -2.950609441803451194e-01 2.481246773639762537e-01
7.613027653110255866e-01 -4.499324127102914961e-01 -4.668821302239801185e-01
7.511774024130671856e-01 -9.777082000136305684e-02 -6.528195591893812821e-01
7.463851577892952616e-01 3.823470825577178211e-01 -5.447200241329948067e-01
-6.897821452443521073e-01 7.234742928529102057e-01 -2.802748085506485271e-02
-6.650948565461972661e-01 -1.592563419434206706e-01 -7.295795017313696507e-01
3.858057722077860574e-01 9.175896164581386349e-01 9.582902430558205842e-02
9.013854036692778848e-01 5.085573614540454812e-02 4.300209857124207002e-01
1.425438059932470358e-01 5.796781014634704299e-01 8.022808498628557494e-01
-5.336756065113187342e-01 5.737218829829229261e-01 6.213159808030895848e-01
7.848479890826659533e-01 5.652363696228625278e-02 6.171051065235574340e-01
-6.596936443084029378e-01 6.625608031189782476e-01 3.547075948290830394e-01
5.787933870033306061e-01 7.844195280320016561e-01 -2.228995720122955160e-01
-3.413450138661273670e-01 1.407642304992271498e-01 -9.293379433342285889e-01
-1.872135818865599544e-01 -1.726606406997590326e-01 9.670260482067445373e-01
-4.750381628803017064e-01 -8.349764942975005377e-01 2.777642845615034828e-01
8.503335391357150774e-01 -1.419406814825863727e-01 -5.067402837363421675e-01
-3.281216226491128762e-01 7.718118325479662589e-01 -5.446491493512711779e-01
-7.858056613502806265e-02 2.222082610663299873e-01 9.718274452492974280e-01
-6.571341432029748075e-01 7.297151239829929859e-01 -1.889194422693904196e-01
-8.493099817319577083e-01 4.943592927629768263e-03 -5.278713061148782026e-01
-9.924417580076746459e-01 1.221215500052935943e-01 1.206996217643974655e-02
-8.074097243192910334e-01 -5.880170966667945809e-01 -4.822272391933202923e-02
-9.473457601203494338e-01 -2.230909653075981436e-01 2.297094512207137895e-01
-5.637928165477517073e-01 5.157815080957077747e-01 6.450636371054181417e-01
-7.508551766708152497e-01 -6.010266040449138147e-01 2.738311978151455883e-01
-1.325308421246336743e-01 -5.934633882422644113e-01 -7.938745383886214313e-01
-2.715803840275380909e-01 -3.317483210128245319e-01 -9.034307646503006994e-01
-5.270342011728671450e-01 7.103925863450287759e-01 -4.664518453818130017e-01
-1.605098542663751793e-01 8.572395639418266544e-01 -4.892616035376307071e-01
3.468834163870333082e-02 1.660304454735333224e-01 9.855103297937656270e-01
8.158264398240756554e-01 2.243369290905329327e-01 -5.330104711262274586e-01
1.304726892537671490e-01 -9.827332011695251168e-01 -1.311957799549496595e-01
-1.050562056634949532e-01 3.787310504491672725e-01 -9.195248691999905466e-01
-4.808761810141692905e-01 -1.696107585621390440e-02 -8.766244466355177511e-01
7.444329012029189396e-01 -3.555686324661898601e-01 -5.651465325141158402e-01
4.127291352925773760e-01 -3.296599605658913634e-01 8.491048058280770139e-01
-1.138605600967233511e-01 -4.632085058150540724e-01 8.789048031471015099e-01
-4.362920516456809117e-01 4.441783404976777927e-01 -7.825310521017881937e-01
-8.938445369360474568e-02 7.913011836209939975e-01 6.048577156967657187e-01
4.760043675633206517e-01 5.097773137128243093e-01 -7.166218894817404372e-01
-9.861360939042019824e-01 -7.880242199991378815e-02 -1.460334981650114883e-01
7.615325060033927285e-01 1.416826110359639401e-01 6.324510099843499988e-01
3.391739898748855064e-01 1.991395674272172789e-02 -9.405128595182523643e-01
7.586012255680845140e-01 -3.000535763011485391e-01 -5.783528610766017763e-01
3.663980663513072833e-01 7.304485040293418052e-01 -5.763657171755791619e-01
4.950107038011921090e-01 8.318354303418588058e-01 -2.510263331808494924e-01
2.939437050484184355e-01 6.657202875037315781e-01 -6.858670403717891384e-01
6.461789904876077406e-01 2.142401720453655234e-01 7.324983692366751065e-01
1.425503416863227735e-01 -8.027228649728115339e-01 -5.790642469838332973e-01
6.035690344340522984e-01 -5.333123782330737583e-01 5.926907523285043222e-01
-9.771690647766718696e-01 -1.788637709801097486e-01 1.146663432497058016e-01
-5.999986753139920914e-01 -3.769144328174036662e-01 7.056465828978338850e-01
-2.232524007096816643e-01 3.475153375667488498e-01 9.107093146186835408e-01
-1.826043675436601899e-01 7.504986377613215298e-02 9.803178886979283524e-01
-6.778018481719687571e-01 9.615436401800143930e-04 -7.352439935480544753e-01
6.217451391199428912e-01 -5.642199878362184062e-01 -5.432207537519351259e-01
-9.031526046567414090e-01 4.261931641774701074e-01 5.171807720845506690e-02
-1.954360196765730917e-01 8.529459104105219236e-01 -4.840330940410418892e-01
3.876755728075127055e-02 6.085359647376869380e-02 9.973935613882271012e-01
6.237703077873331114e-01 -7.655881474542587384e-01 1.574337689330080614e-01
-7.404766966083377311e-02 8.912412136348354386e-01 4.474438978648671017e-01
6.509413858414618836e-01 5.780880372672412282e-01 -4.920259478597708291e-01
-3.681784756214361853e-01 -6.323761133929610700e-01 -6.815754259794644110e-01
-6.755467903392926576e-01 6.092183557088721724e-01 4.153185875080212530e-01
-3.175617276427228353e-01 -7.478865698041431420e-01 5.829410157495882316e-01
2.521615405537805388e-01 -3.175260147128200483e-01 -9.141070984551745715e-01
9.542600007225378045e-01 3.835525490795134440e-02 -2.965075470236267496e-01
1.485681787803202758e-01 2.882808595404513508e-01 9.459501267384645695e-01
7.183349008722669238e-01 -2.001700042923386103e-01 -6.662784249624442712e-01
-3.366122820542512550e-01 9.050889876473562357e-01 2.598193526466279768e-01
9.106813648743306011e-01 -6.617687297186418405e-02 4.077745371578418432e-01
3.521185275870892251e-01 -6.774119045340104561e-01 -6.458526566683029380e-01
2.326130624933379076e-01 9.030629696095763270e-01 3.610656949606316224e-01
7.227275173698386457e-01 5.336185735231039340e-01 -4.392222144058716138e-01
1.421533075242191191e-01 -9.809514932431041556e-01 -1.323880850531827247e-01
-5.820344656964766550e-01 -6.977437666564179075e-01 4.175997088523064615e-01
7.215449843012582409e-01 -5.168037641545283334e-01 -4.607458138555439175e-01
-7.764434504378842083e-01 5.365175938131225841e-01 -3.305819713793993198e-01
-1.647529994226114014e-01 -6.864566365816315852e-01 7.082610643500648617e-01
9.728843298535915229e-01 -1.418072113325921368e-01 -1.827205394568482688e-01
-6.805533114599670030e-01 5.340872827397311617e-01 5.015954193137767136e-01
7.801831588043388610e-01 5.960489020726232878e-01 -1.898418948917865445e-01
-7.733829045690165938e-01 7.547318459293737847e-02 6.294304420091166863e-01
-8.961992060913961389e-01 -3.329455281821701584e-01 -2.932136733930511552e-01
-8.164377036118631858e-01 5.722298778335580538e-01 7.734625417936269454e-02
2.296786730778846430e-01 -9.701849135820607151e-01 7.738824581906099398e-02
-5.002637553936352122e-01 -8.539032374782976609e-01 1.434762560967460521e-01
-1.878678291641272258e-01 7.179550373663245999e-01 6.702583405564438435e-01
3.682887123786403039e-01 -5.795895973816859170e-01 7.269383212772720926e-01
3.323591662679524772e-01 -9.416447863841764798e-01 -5.331492167461116677e-02
-7.719914410355009915e-01 4.878171103844625156e-01 4.075091186514526176e-01
7.489947770122389326e-01 -5.741815714517709557e-01 3.306393004673843228e-01
3.517051168100338576e-01 8.969192356269342636e-02 -9.318040940333243149e-01
7.092450564460465179e-01 5.789770798362201543e-01 4.021902422127708321e-01
6.724190578053168554e-01 -3.376333927306081339e-02 -7.394001944964189166e-01
-7.288716040441152177e-01 -6.247629269780106132e-01 2.800311944980910517e-01
-5.371540503365898056e-01 6.197802369271520062e-01 5.721345856715179812e-01
5.950622859179509616e-01 -7.304190211688679213e-01 -3.352445814518342782e-01
5.225690585511415520e-01 4.252850356221068995e-01 7.389548142619255522e-01
-8.235586472999431584e-02 -5.109854656202305057e-01 8.556350655913133041e-01
7.842373486948810424e-01 -6.204512302935607515e-01 -3.471561497404114602e-03
6.652941376289013276e-01 -7.465785492023097047e-01 2.044580052407748115e-03
2.384238994727332084e-01 5.942653229412693250e-01 7.681163779725863616e-01
4.869757670182799369e-01 -7.830461852684007518e-01 3.869021505155581520e-01
8.984586899454891640e-01 -4.240163134419730473e-01 1.139392311564103033e-01
-1.348296432480421657e-02 -7.050570642378778397e-01 -7.090223874048554586e-01
-4.795633015967661339e-01 -3.061528012118298059e-01 -8.223682277859226675e-01
5.870110611850486437e-01 -1.949931195058778044e-01 7.857453133119978173e-01
4.566335935384310818e-02 9.426304784281310800e-01 3.307002249029692975e-01
8.963453261883586043e-01 1.234832751940851542e-01 4.258132653730117845e-01
-6.590811640695318774e-01 5.956319702051642018e-02 -7.497094402029669258e-01
4.992878464819613393e-01 -4.439669950040184276e-01 -7.440463384107923739e-01
6.185810488836556570e-02 -9.978606418700122216e-01 -2.115925958976496921e-02
-7.235715094843919726e-01 -2.909080090519909345e-01 6.259527146134005182e-01
6.248776929139139291e-01 4.322525742308325758e-01 6.501427389192336870e-01
-4.788183246825311601e-01 7.550493766461839895e-01 -4.479212551045365642e-01
7.796280594002561459e-01 4.422652882844393951e-01 -4.433751276001758335e-01
-6.149437837288132536e-02 3.414892279848521506e-01 -9.378718188531109945e-01
-6.060970693646666740e-01 -3.728735306955633377e-01 -7.025750298823514317e-01
6.590147587343715418e-01 4.275235641896172993e-03 7.521178565427656393e-01
8.072550498395043572e-01 4.704957235574453445e-01 -3.563327919554629131e-01
4.594468974938874517e-01 -3.823415303377669106e-01 8.017003820394597025e-01
5.578197770329232918e-01 -8.253168831847951248e-01 8.768773392598849803e-02
3.482273490056245202e-01 8.856707882828187550e-01 3.071237017669029012e-01
7.234425363843001167e-01 5.188169373516895444e-01 -4.554776416761460722e-01
-9.900472849613763948e-01 5.563724780716990809e-02 1.292705310465250002e-01
7.572949667964522236e-02 4.913410386566607890e-01 8.676687311782310674e-01
-5.843484968708866356e-01 -6.072396255537322318e-01 -5.383278474703854233e-01
9.165053589897502739e-01 8.647073180840397777e-02 -3.905646418758207394e-01
8.893920958677109523e-02 9.943115419910972808e-01 5.860353625308591802e-02
1.629825139276254442e-01 9.676434883904097006e-01 -1.926208180064405417e-01
3.730273969219037311e-01 -6.866483234294871174e-01 6.239908982326128895e-01
9.021076697757410834e-01 -1.322618999820538155e-01 -4.107414538915199476e-01
-9.184320653563948778e-01 -2.575178638991529878e-01 3.002783560265442353e-01
3.501830394110235223e-01 9.088941498979276057e-01 2.264580826338087050e-01
-6.108541152373411220e-01 7.359285121674886965e-02 -7.883155092647832207e-01
6.041648780174724287e-01 -3.711869955706212539e-03 -7.968506900238994106e-01
-2.068110846138644376e-01 9.421734124664710164e-01 -2.637014147139185583e-01
3.874827337861050380e-01 2.992955074704263876e-02 9.213909881313832040e-01
2.643814793192699186e-01 8.472120840100459960e-01 -4.607972635555781515e-01
9.801744272355195076e-01 -8.947598710392403940e-03 1.979344150743849451e-01
-4.996694714661283898e-01 6.372515324831049544e-01 -5.867204646445307592e-01
-1.821195687017421183e-01 4.998204496236531846e-01 -8.467655996991731993e-01
4.481497330580146987e-01 8.654135764422142829e-01 -2.241007774853224221e-01
-7.854766135362332147e-01 -6.044088806125470503e-01 -1.331029474667593249e-01
-3.455722324023137171e-01 9.366390795338670472e-01 -5.733294761680759327e-02
-1.139034210208975523e-01 9.124310170006814102e-01 -3.930593465303152678e-01
9.821293079470182485e-01 -2.159219418220391720e-02 1.869647015399142354e-01
-4.217427304567870072e-01 3.064425534875837576e-01 8.533616060726328945e-01
-3.637692434626466076e-01 -6.419623450511049434e-01 6.749490981156280878e-01
-4.231186636553452285e-01 8.864592647871251119e-01 -1.875115152186243583e-01
3.220447085844282409e-01 -9.340878175664300009e-01 1.541659973754083979e-01
-4.481171155533585915e-01 4.198239935083760144e-01 -7.892647624357854719e-01
-4.522470454639809234e-01 8.728682864554888621e-01 1.832309045149288773e-01
4.254326228377330321e-01 -9.035237376144660271e-01 5.149698042208539911e-02
7.977131247307114315e-01 -9.518600004489834177e-02 -5.954774521573567014e-01
7.199697401993067070e-01 -6.304741518575507353e-01 2.900791565018849827e-01
7.194690151340475959e-01 5.369489431684025815e-01 -4.405112583037792962e-01
8.596426630482677522e-01 -5.091551814810902910e-01 -4.213659974701962352e-02
3.109032630940313235e-01 -7.066243873886381976e-01 6.356265697287325489e-01
-4.297042302296853467e-01 -4.629436209795320667e-01 -7.752660693704278572e-01
8.582767662701014100e-01 4.722212987988835819e-01 -2.009179868544207492e-01
-8.192769521206837158e-02 -5.892814116245925771e-01 8.037631931551517672e-01
1.826498082117992972e-01 -9.544275833682540622e-01 2.360233794903109639e-01
-5.143399613031627293e-01 8.528533432997850161e-01 -8.997543569797317176e-02
3.855555255540545900e-01 -7.043447106675490010e-01 5.960247186731297830e-01
9.875472846776411906e-01 -2.840985208361194655e-02 -1.547360359787116890e-01
-3.215899412829616444e-01 9.468317169736415462e-01 9.466224081817329467e-03
3.300569793197669632e-01 -9.371773833471552795e-01 1.129643419176603603e-01
-8.206777053883074213e-01 5.120186642520413445e-01 2.536237199792987784e-01
8.154970105273890990e-01 -3.533362578886756200e-01 4.583864250630889092e-01
-8.320631240225062619e-01 -4.854301941417753508e-01 2.683812293313109776e-01
-8.188033704539069424e-01 -2.965014224796810316e-01 -4.915770000730786959e-01
-6.689852534993102617e-01 3.396617952959016806e-01 6.611267619880686341e-01
8.272025145389815259e-01 5.618502341608845319e-01 -7.766229055696106942e-03
9.849161677707883866e-01 1.297948843142867070e-01 1.144265286965622658e-01
-6.508887696357007480e-01 1.935942612205032165e-01 -7.340742956844430456e-01
8.902162708538802205e-01 3.716297177821948350e-01 -2.634508378581042476e-01
-3.582114038344191842e-01 9.015333381393123569e-01 2.427390170252057555e-01
6.839339634028467341e-01 1.095474803963758098e-01 -7.212722670690168147e-01
-8.469032881706839433e-01 1.831284028948474973e-01 4.992181973234409154e-01
8.988857195689584634e-01 -2.723290235278558735e-01 3.432803025216566439e-01
-1.226847155185031568e-01 9.828387084637200122e-01 1.377553400907226278e-01
-3.174237196484109846e-01 3.683156437880816814e-01 -8.738339480390642233e-01
2.661222282750788648e-01 -7.357998316882637946e-01 6.227178874140597564e-01
-6.977358383801600672e-01 -1.443090293886551689e-01 7.016691555689470450e-01
7.358995600324148567e-01 6.101294419892124843e-01 -2.935879792532900545e-01
-7.837946968786020374e-01 2.834144630650583044e-02 -6.203729810091955787e-01
-5.733377790392190088e-01 8.154790777986189454e-01 7.923171586612026696e-02
3.231702253320474227e-01 3.586746832325588552e-01 -8.757359631000986022e-01
-3.790933484318116387e-01 -8.130551921129186566e-01 4.418478106237280767e-01
-3.293122602039322278e-01 -4.828317093481016564e-01 -8.114351334070811772e-01
-6.419713179995911734e-01 -7.509031580644686121e-01 -1.549750756562982834e-01
4.280389828499812643e-01 -4.188410649476324576e-01 -8.008462970347598464e-01
-1.956235720117119881e-01 -1.766324397529599188e-01 9.646410727831857823e-01
-9.541381767352439258e-01 1.161896693018822230e-01 2.758990765549308999e-01
-6.088338925527680967e-01 6.451089707312701593e-01 4.616878893376842874e-01
3.764773804758152487e-01 -9.213835099503774329e-01 9.652569389334132721e-02
-8.737865619298248454e-01 2.222048578806150865e-01 -4.325760572721426556e-01
8.550262040909957229e-01 4.138815406553437715e-01 3.124616146385054694e-01
2.954647320453624992e-01 1.656818567147248789e-01 9.408773110628843028e-01
-5.267314997644787500e-01 7.552022822609861796e-01 -3.901582243445095854e-01
7.176875570863691101e-01 -1.888455424590509413e-01 -6.702700437112988352e-01
-8.375405912943511000e-01 -2.654549951190748880e-01 4.775556548724356198e-01
-7.180359447158350950e-01 3.895367646108380821e-01 5.767889485007136052e-01
5.831309351229758686e-01 7.439523290835087233e-01 -3.263330270656443766e-01
5.061569426627785528e-01 8.303458396202986203e-01 2.330899740862528435e-01
7.364930345861756544e-01 -3.553946899306791862e-01 -5.755628761265988436e-01
-2.666565773008651163e-01 -7.265512104245643865e-01 -6.332595111111937181e-01
-4.404318053201255467e-01 4.863079574200380728e-01 7.546684009632348422e-01
-8.221954514568077799e-02 9.598939520618187116e-01 -2.680364661593269138e-01
-3.970337126960238328e-02 -5.178661156126266318e-01 -8.545398344197405738e-01
-1.635861137480910110e-01 -6.924419292599628961e-02 -9.840959430537371544e-01
-1.360511354634890979e-01 8.705976876914771623e-01 4.728104849993794989e-01
1.964775413537224180e-01 -5.767832740276270798e-01 -7.929171649961725965e-01
2.629177847600603843e-02 -8.792441320019745987e-01 4.756453497351388893e-01
-9.361647350321542493e-01 -3.230823119905381069e-01 1.386124401380517401e-01
9.691263460834018684e-01 9.434405330000980583e-02 -2.278010643828500825e-01
-7.818462406830879452e-01 -5.412316283597753408e-01 3.094911636747467165e-01
9.149041219555082982e-01 -4.870850073605567307e-03 -4.036418244537858802e-01
-1.199583601237782515e-01 -4.057610208870787716e-01 9.060728368983862469e-01
8.126085932135508338e-01 4.653607055786702640e-01 -3.508656266134030366e-01
4.457430938760884587e-01 -1.469258218156187235e-01 8.830208928137418534e-01
1.491502404132628301e-01 5.532928328173054577e-01 8.195250130030607982e-01
8.671207301640627696e-01 -2.137269841078164034e-01 4.499137868346776425e-01
8.596983003222119502e-01 -4.947584380505974933e-01 1.270154337111557286e-01
-1.115448102829204452e-01 -6.334671238830276163e-01 7.656873763216371920e-01
7.883356873264318887e-02 8.425270773102677691e-01 5.328540066846580991e-01
-3.838416019792414424e-01 7.787579103015025428e-01 -4.961872043219642814e-01
-2.855326867539533797e-01 -9.256793297590208969e-01 -2.481710362873933429e-01
-6.664125802781507846e-02 -6.471176155130269059e-02 -9.956763182105907717e-01
-5.107208295061541614e-01 6.913081290927860501e-01 5.111333534008298818e-01
6.952672600524574253e-01 -6.735197551319221931e-01 -2.509473581175620804e-01
6.890593881203270488e-02 7.970065899860905301e-01 -6.000270553193214340e-01
2.871026520642342983e-01 9.499562171863898952e-01 -1.231066716575810738e-01
1.043015176911421885e-02 -6.162303062436899070e-01 7.874969343437987490e-01
-5.147987773312192455e-02 -9.872471622145743142e-01 -1.506415045326253976e-01
5.079619352573671448e-02 8.314107704390948372e-01 -5.533316162313215436e-01
8.093690139842630860e-01 2.650796162583611282e-01 -5.240749910522938260e-01
-3.059017310603812101e-01 2.657589059949829191e-01 -9.142189753109547512e-01
-2.477660064096534887e-01 -9.085107020897310592e-01 -3.364822584568696873e-01
-4.128599184150377188e-01 -2.595766817185999331e-01 -8.730215541865441464e-01
-2.166098028361123917e-01 6.241050750347116871e-01 -7.507150249137268805e-01
4.185250591521571528e-01 1.461152260607226361e-01 8.963744282245601491e-01
7.880916074626806989e-01 5.899449737712736397e-01 -1.757172335569265054e-01
2.814106995410650125e-01 -3.706302480595238258e-01 8.851221595955803823e-01
9.276343648158663635e-01 3.727603238545327824e-01 2.332865560909975350e-02
2.074865634125717395e-01 -9.304537768402363351e-01 3.020018131849219745e-01
-2.032439907867173434e-01 -1.283098904111950045e-01 -9.706845276565171377e-01
2.975966476981724562e-01 -4.351172789095837934e-01 -8.497700800058386461e-01
-5.429000754673244389e-01 5.604603612408681768e-01 -6.254148155706968915e-01
-2.558350649181395653e-01 -9.665887512629294243e-01 -1.595636206351690872e-02
-5.163707633280215648e-01 -3.545926576860301549e-01 7.795032276361620882e-01
7.900193055394940655e-01 6.088724745093198054e-01 7.172033644506510541e-02
-4.245396816561392006e-01 2.403257031700559154e-01 -8.729316210878845794e-01
-1.874657893434827360e-01 7.426460605690863304e-01 -6.429101076721704944e-01
-9.745315076169215329e-01 1.474320246144308344e-01 -1.689737813389394494e-01
4.210671520068676177e-01 8.433595527703823258e-01 -3.338369635791793022e-01
-6.636742802616134584e-01 -5.016474846630912809e-01 -5.548749866865715363e-01
8.354426830827982320e-01 -4.705579415155323741e-01 2.839203179768573504e-01
-6.240180078796425667e-01 4.700257707939303753e-01 6.242413801018751318e-01
-1.325980710994545120e-01 2.649245523211316011e-01 -9.551087546024024100e-01
3.492761003661358221e-01 4.528229027295546105e-01 8.203399444599814849e-01
-2.901664873320186633e-01 -6.231621390569063584e-02 9.549450764907150280e-01
7.790991478608253473e-01 1.261711708452390446e-01 -6.140727590848474859e-01
-2.547787952939195577e-01 2.751648733291178206e-01 -9.270232240641814725e-01
9.690742762112670716e-01 -1.320598806231911004e-01 -2.084591929260917187e-01
-1.828295848611605490e-01 3.685764629744782139e-01 -9.114410204948638627e-01
6.033591375213039898e-01 -7.404451908688839401e-01 2.961396131703595835e-01
4.500277533931793528e-01 -5.806724851688004341e-01 -6.784500616432846964e-01
8.860712359034975116e-02 -9.515864263983681015e-01 2.943332307834566897e-01
4.242474555136260816e-01 -4.306275413859941281e-01 -7.966015422343015739e-01
-2.913430572876416491e-01 1.131789059241141010e-01 -9.498998674724143942e-01
-6.829539322564422976e-01 5.567862132714592738e-01 4.728245331264993578e-01
-3.127259465836139118e-01 2.395403906446930409e-01 9.191424718634051416e-01
-8.687263870837205193e-01 2.694640075069096863e-01 4.155762421539300200e-01
-8.581677125861808531e-01 2.019426959935254895e-01 -4.719823350608244317e-01
9.368036189738823127e-01 -3.452969032053411769e-01 -5.629412148917922742e-02
-9.797271496340270724e-01 -2.335069853202726906e-02 -1.989709957457396761e-01
6.261861646701657458e-01 7.721100731377230630e-01 1.083370764555151161e-01
5.388496418050084391e-02 -7.904531872788671532e-01 6.101476619277880209e-01
-4.912211689626727051e-01 -6.958014208258029853e-01 -5.239867803100944910e-01
4.157669874459488102e-01 -9.089609461375460775e-01 -3.045998271269270696e-02
5.173166014383250300e-01 3.234412694912333075e-01 7.923189250965801955e-01
2.903988691874266892e-01 2.732211536821438358e-01 9.170707158966869832e-01
-3.035297428253244112e-01 5.335221777476896465e-02 -9.513270920555695342e-01
-6.671687298972842628e-01 7.214150691503231627e-01 -1.855968314656233631e-01
-5.681227535086948999e-01 -2.938098448507044935e-01 7.687082099304674010e-01
-1.517203877116787558e-01 7.861534399262521955e-01 5.991190973794261465e-01
7.186336106403381496e-01 5.662665331136286229e-01 -4.036185663884934716e-01
-6.836553413371159182e-01 7.297484111142236163e-01 9.090145075729621355e-03
1.157191003332745521e-01 6.394010826842274654e-03 -9.932613988490662793e-01
5.107262207450540270e-01 7.533692989378186766e-01 -4.142383696151455963e-01
-9.294632063786779641e-01 -2.756004320367305138e-01 -2.452397803159890588e-01
8.941511662987835507e-01 -3.815006237681707879e-01 -2.344162235661636229e-01
-7.365252526648806697e-01 -2.380418435684720363e-02 -6.759910598477166799e-01
2.593279484404226176e-01 9.381326830487980439e-01 -2.294691355135695388e-01
-7.349597339187184664e-02 -3.316008109593859277e-01 -9.405526269519738358e-01
-1.320250116326233680e-01 -9.639251688961013587e-01 -2.311226191267920504e-01
6.635991787493529248e-01 9.591509780509741012e-02 -7.419140273483330050e-01
-3.648378727758360696e-01 4.655491478064231470e-01 8.063233331394522585e-01
7.119476568996231658e-02 9.451815032680299655e-01 3.186898668272002411e-01
7.967082020022440147e-01 5.950363065024175668e-01 -1.057725616892800508e-01
-4.646900969915614410e-01 7.866965329517698891e-01 4.064131872855976102e-01
-9.646646288939326741e-01 -2.345089180001949936e-01 -1.201154492116192074e-01
-1.509821382723666450e-01 1.507958242779135205e-01 9.769672529327932953e-01
-3.161296993292384006e-01 1.406020189789032038e-01 -9.382393540355580264e-01
3.917641478938975741e-01 -6.911797230997149821e-01 -6.072820125779863076e-01
-1.357546188833544994e-03 -8.887724226228006438e-03 9.999595818964004401e-01
-3.361076597084697304e-01 -8.924946666257685957e-01 -3.008070995336603604e-01
3.663084338295813369e-01 -7.758927084211912628e-02 9.272529516564007590e-01
5.496970854400631268e-01 -3.510321122599681654e-01 -7.580300590484555512e-01
2.332740120089917824e-01 8.495229424595426293e-01 -4.731743923292019982e-01
9.896888590092887128e-01 -1.056582137751717193e-01 -9.670731210581802462e-02
7.855248341799062062e-02 -7.960450988504630399e-01 6.001180783354412851e-01
-5.601608875963137724e-01 7.430149612300799289e-01 -3.662629484340079733e-01
5.142871078428691289e-01 -6.391696710337710918e-01 5.718136954788664017e-01
4.776671468149041450e-02 6.278719684854211502e-01 7.768494913165480131e-01
-9.113574198828950923e-01 -2.117819152664577875e-01 3.529533589448660691e-01
-3.897182696614052699e-01 -9.131935863935962683e-01 1.191517690247261146e-01
-6.483157261095472742e-04 3.209029156665296756e-01 -9.471118721689848474e-01
8.391132709075908025e-01 -4.115722539225792898e-01 -3.556644463365044029e-01
3.321768662057252852e-01 -8.163192457526539103e-01 4.725266326584799392e-01
-2.212624662127095632e-01 -9.695619889166257055e-01 1.048449841122911785e-01
-7.020347145344719708e-01 -5.672135165558466197e-01 4.305996821002692210e-01
4.742916459153303510e-01 -8.791142063433703413e-01 -4.696431432686905272e-02
-4.989009720668606263e-01 -6.496522308121439604e-01 5.736286246968036462e-01
-5.189358783255991758e-01 -3.539987186783544737e-01 7.780684168892362251e-01
-4.121206680787937171e-01 -2.565934158058766901e-01 -8.742518938540317919e-01
-8.109251811237648822e-01 -1.611764683120693320e-01 -5.625144413095878315e-01
-1.756474809287009720e-01 5.639895766940953292e-01 8.068851961858122257e-01
2.727874122090649389e-01 -7.704788697479000303e-01 5.761504482444496089e-01
-6.794958295833458672e-01 4.573408162094370066e-01 5.736939910856015956e-01
-5.660157245499203293e-01 3.158016493408178915e-01 -7.615087115955061492e-01
5.022359301481883059e-02 9.714350315643700551e-01 2.319300975600478432e-01
6.623574670887453220e-01 -9.499571859227573523e-02 -7.431409013376393258e-01
5.266515761016261621e-01 -3.934831363309829189e-01 7.535311133674615913e-01
6.773798803015957937e-01 -7.219930949724563396e-01 -1.410052076154966749e-01
4.118333157728802929e-01 -8.600571545796645845e-01 3.011561237561775628e-01
4.713937062363033337e-01 -8.700090899297051594e-01 1.444719943812213525e-01
3.604805106477924070e-01 6.696030849905174609e-01 -6.493731669959028618e-01
-7.540154592165385639e-01 1.508846638259104533e-01 -6.392921910086298842e-01
8.340509251896884857e-01 4.445793850149814541e-01 3.266622485227295147e-01
-3.939212434993908385e-01 3.740858843342798057e-01 -8.395747763372440886e-01
1.412353109374796419e-02 9.574817830249626738e-01 2.881478111053111801e-01
-1.236717529039261729e-02 -4.303707926978415088e-01 -9.025674677097375032e-01
-4.512089177956236652e-01 8.733640721227328152e-01 -1.834276697417818458e-01
-6.932601834050383660e-01 7.182965942272704352e-01 -5.865424815575019657e-02
-8.315997973494364537e-01 3.309651885081248968e-01 -4.459863462530635481e-01
9.227082596284474914e-01 3.801267157949353992e-01 -6.413382533732100987e-02
-9.788335427408288991e-01 -1.631272198479116753e-01 -1.235896668420495559e-01
2.150254243713133062e-01 9.765279819992594978e-01 -1.253663616728090992e-02
-4.041942832385571338e-02 7.236699454919500729e-01 6.889615953053194186e-01
6.134957345696855080e-02 9.892830541510521103e-01 -1.324962965754676592e-01
-6.695103058682262409e-01 -3.970593290201805681e-02 -7.417407830425766235e-01
4.145770915022568837e-02 9.205118050267082630e-01 3.885090412828079987e-01
-7.735165899755607199e-01 -6.318004616969534748e-01 5.000261625251983116e-02
-8.308027906169370702e-01 -5.413437566498977560e-01 1.292813220820635822e-01
5.046289561267687240e-01 -2.861510937638977459e-01 8.145349398129786422e-01
-2.728448240361128763e-01 -7.179301573619326637e-01 6.404154832192716640e-01
-9.308878450691848716e-02 1.315431688633353184e-02 -9.955709126658325303e-01
3.588788627804517795e-01 2.814052665556296962e-01 8.899533908043526509e-01
7.533846293522482584e-01 -5.986461735598320733e-01 2.720925561972381002e-01
-3.439469055018866128e-01 4.830694187847659471e-01 -8.051983996696867596e-01
6.167646031882818569e-01 6.049199368106625840e-01 5.036598994390810713e-01
-2.245199393347140637e-01 7.628904710658419575e-01 6.062911231397620782e-01
-2.633013857196091906e-03 6.033247813085627076e-01 -7.974912385079868660e-01
-8.510920273670236069e-01 -4.004052658798595843e-01 -3.395850173490703727e-01
1.070035146637347417e-01 -7.066821907101507039e-01 6.993929719283074053e-01
-5.871773812945633164e-01 -5.710806615321224466e-01 5.736633166937661343e-01
-1.454155103841926538e-03 -9.647794032737875281e-01 2.630562457947130395e-01
8.795875457854804846e-01 -4.660430669327206843e-01 -9.554898776553785722e-02
2.129632539491194687e-01 2.786928776991232787e-02 9.766626619599013681e-01
9.614737949215808044e-01 -1.407589101090312711e-01 2.361251170545218270e-01
9.710344230341857452e-01 -1.579249226842106280e-01 -1.793094199361870977e-01
-1.150721879777651113e-01 -9.905928348219587010e-01 7.405556801082154028e-02
1.481429990435795818e-01 -3.592169339023454366e-01 -9.214211014689061008e-01
8.438544161534983212e-01 -4.358474886127248760e-01 -3.129643606039176351e-01
2.984044090751482581e-01 -5.931538568104842701e-01 7.477454853059020135e-01
-2.546101413701219451e-01 -1.671606249165172309e-01 -9.524867460437472788e-01
5.321341408167739040e-01 -5.530877659505857302e-01 6.410360203085189168e-01
1.192436452847852046e-01 -6.050585613617152081e-01 -7.872007941955394550e-01
-2.626490168132589731e-01 -7.241182867393529676e-01 -6.377054184940663673e-01
6.219759464734622156e-01 6.365746940448333557e-01 -4.559808997207754344e-01
-3.964371792410196771e-01 8.998542178414646875e-01 -1.819339153328742298e-01
-3.137663136921393092e-01 8.933006518215109715e-01 -3.218146140984114445e-01
-8.222611305094650325e-01 5.452941390872415584e-01 1.629138886970681599e-01
-3.277070927182142851e-02 -7.502047939359079987e-01 6.603929495152136564e-01
7.584869943762608813e-01 3.218656386699850769e-01 5.666568538415719392e-01
-1.911698222297859018e-01 8.909531062154487646e-01 4.118939931507564212e-01
-3.389479709045567501e-02 7.234911738504694600e-01 6.895010254456962473e-01
-4.507099374915667922e-01 -8.683049477705138131e-01 -2.071402180253594516e-01
-7.420371047979281709e-01 9.311468722270480058e-02 -6.638603694501775676e-01
7.107119933746233187e-01 5.872461842883652805e-01 3.873375549985111355e-01
1.572434361666119737e-03 -3.803432164197907972e-01 -9.248440761412847211e-01
-7.151523170292234388e-01 5.375567597295218825e-01 -4.467548472225343903e-01
-7.721166880631460394e-01 5.754385556384681299e-01 2.696410367490674753e-01
-4.822191199808352202e-01 5.529839915540482043e-01 6.794655439460202118e-01
-7.226547261373154063e-01 -5.778197920691908740e-01 -3.793341992023903098e-01
8.430192809163090661e-01 2.061519546095766930e-01 -4.968096855074388141e-01
4.437151115106737209e-01 -6.159060440304233719e-01 -6.509812936973418118e-01
-3.673321354315849385e-01 -8.194552416823611685e-01 -4.399547808111358149e-01
1.549432435374590300e-01 -8.327693118110915949e-01 5.314958744786009159e-01
7.248714101061378701e-01 -2.969119657379278854e-01 -6.216146100377457628e-01
-4.419535516375993067e-01 -7.364425316133663690e-01 5.121810771844346188e-01
8.653697119561987172e-01 2.445125843371331875e-01 4.374344039163151066e-01
1.992571997094595704e-01 8.053855034789768608e-01 -5.582568935085885364e-01
3.165231243818190654e-01 3.743965225420172738e-01 -8.715734941128120417e-01
8.291599323574644353e-02 -7.852777829215661365e-01 6.135664118215070628e-01
-4.854960147667436998e-01 3.078427298528181866e-01 8.182459736059655153e-01
-6.784255778034836704e-01 3.106277784556063515e-01 -6.657695687200970713e-01
-6.306154893393356442e-02 -5.378118124599711170e-01 -8.407030958814021293e-01
5.012091281326549463e-01 3.746180583759950999e-01 -7.800325122808045020e-01
3.220573863015967486e-01 -8.941938332089476305e-01 3.109604935995451958e-01
-7.009405352283988588e-02 -4.508362543414718981e-01 -8.898502657369322666e-01
-7.462208816607082129e-01 3.995837014385881791e-01 -5.324352179544028507e-01
5.602531448012485482e-01 7.037927126012026857e-01 4.367977008063939071e-01
3.958324650227059149e-01 8.310891369303844423e-01 3.906501070143933441e-01
6.861920174364412039e-01 -2.227966185306531899e-01 -6.924609606164185971e-01
2.433007468413756272e-02 -9.790502268604059921e-01 2.021600869371888431e-01
-7.444403510615110742e-01 4.780088851235543557e-02 6.659757043382615871e-01
6.417301348417340234e-01 -7.102793154876396731e-01 -2.892848561995946532e-01
4.339407217999045052e-01 8.296371307600124423e-01 -3.512800609600151280e-01
-7.490486453889280138e-01 2.438643958167379666e-01 -6.160002299463446240e-01
-7.873403839261072790e-01 5.968141801490056686e-01 1.546219719579340068e-01
-8.691364160421734264e-02 1.113871701074447135e-01 9.899691496397999835e-01
6.621969595334302738e-01 -6.261145853927083636e-03 -7.493036666380835653e-01
-3.721901604400060792e-01 -9.195543664674747930e-01 1.260724061095198079e-01
4.587580498032231002e-01 -4.296506898281614584e-01 7.777797480462759205e-01
5.399365366672903566e-01 -8.161458049931974434e-01 -2.058508230824876162e-01
2.822407426937647568e-01 -5.717546823269984424e-01 7.703484577779234899e-01
-4.380454309437978866e-01 -8.035912722473593783e-01 4.029358107653532861e-01
-1.637239571906007884e-01 8.609526398573772443e-01 -4.816170862463908242e-01
3.593271721095016025e-01 3.227120315228767522e-01 -8.756374410075019599e-01
7.598733583979588868e-01 -4.867493750527215335e-01 4.308915467757429840e-01
2.970589317523039674e-02 4.595872989175179835e-01 -8.876356654530966894e-01
-2.747546412527362425e-01 4.278294782243119987e-01 -8.610875824632435727e-01
9.037964065235128963e-01 1.633753641175100524e-01 -3.955509397721815867e-01
-5.179025855656724797e-01 7.650741145921632347e-01 3.826728511998322979e-01
-6.393942198696621615e-01 5.495517736375582149e-03 7.688594350608409789e-01
4.298853431156058891e-01 1.309906206162179954e-01 8.933308732406799457e-01
-7.406789999238859723e-01 4.267038658250492666e-01 5.189589867819136559e-01
2.969916144863433694e-01 8.902021581108602311e-01 3.454505733380137666e-01
3.773042141508460845e-01 5.121470664529843564e-01 7.715872681088089546e-01
7.634081657401470267e-01 -4.953098829150466842e-01 -4.145794162376453262e-01
-6.932147134556621015e-01 1.950606577819116467e-03 7.207284899201382711e-01
2.546292023643512148e-01 3.530830803114504146e-01 9.002756842773618207e-01
-3.266605821551735178e-01 9.129924221429605025e-01 -2.444129726008289483e-01
3.690533901886950408e-01 -9.088136059867508720e-01 1.945698454632410201e-01
-9.749779290518553188e-01 2.208287315731390088e-01 -2.554817358548591016e-02
4.582737619267617801e-01 -6.752834481278150447e-01 5.779077987136893579e-01
2.147920680181252817e-01 3.054286709289996127e-01 9.276732692554214843e-01
4.278927412097113248e-01 4.807504710839456408e-01 7.653670926899086568e-01
9.927137016909541867e-01 -1.015311524192111098e-01 6.489169102027060598e-02
2.013229086684589775e-02 -7.896671750132603362e-01 6.132050583377713915e-01
-6.628845473466381533e-01 -1.201569779827355161e-01 -7.390171699839583885e-01
-7.222477406735010319e-02 3.916801963820535359e-01 -9.172623429385053928e-01
1.556486081801929378e-01 9.333871949578516070e-01 3.233602558452141618e-01
-3.444490128549995700e-01 3.198100293490060420e-01 8.826530590617154282e-01
-7.172764613390149036e-01 5.085434647934298225e-01 -4.763381387469138306e-01
-5.878118075864827707e-01 4.794862205342161343e-01 -6.515905487188444756e-01
-4.400214132160789465e-02 7.555825119779508992e-01 -6.535739278399979035e-01
-1.497468493231817743e-01 -5.493201060616598186e-01 8.220847293279368584e-01
-2.045992530468017101e-01 9.073926808374481734e-01 3.671207817807645712e-01
7.730138808196037603e-01 5.000859772214212295e-01 3.903377453522930973e-01
-8.177883864835762129e-01 5.731654259768612647e-01 -5.199566710171429212e-02
-4.051712998420876066e-01 -8.833577846478374296e-01 2.356167270936802838e-01
-8.702663432598474191e-01 -3.125889102217784266e-01 -3.806897227342688761e-01
2.931971516679167111e-01 -9.559124173604343078e-01 -1.633648034160270490e-02
1.881189913772417510e-01 8.112379208052618029e-01 5.536282876901839067e-01
-7.570002060815447797e-02 9.442675187437860052e-01 -3.203566136751023752e-01
-3.626159897124479059e-01 -1.526428231384381051e-01 -9.193529314410159303e-01
7.914843655904680864e-01 1.087524312923634634e-01 6.014361210584661110e-01
-4.274208620081363375e-01 -7.696902296080503358e-01 4.742239525436566239e-01
7.687758338271541425e-02 8.673614508280974578e-01 -4.917051461908972798e-01
4.546625698862447607e-01 -7.324420078695323966e-01 -5.067648889302449611e-01
-1.690283259958590481e-02 -7.277664733181956613e-01 6.856166965324766993e-01
-7.359650452719966873e-01 -2.895124492568543206e-01 6.119950930057245220e-01
5.248530833393043604e-01 -7.636228312901195414e-01 -3.760444288135206259e-01
-5.809746370693175122e-01 -6.340583887963862075e-01 -5.103316869244018950e-01
-1.781254691271194068e-01 8.742635946057014662e-01 4.515910588080341292e-01
-8.873690667214366723e-01 4.289432871819661153e-01 1.690674297653334823e-01
-8.834199069717622033e-01 -4.685239255327156016e-01 7.389125077938050838e-03
2.753430517366193264e-01 -2.754220611586912226e-01 -9.210477143381138321e-01
1.304027316999090969e-01 -9.392639778460257771e-01 -3.174559929912518785e-01
1.715553078356160388e-01 3.211186400109910903e-03 9.851692568464216482e-01
-1.277300245876503704e-01 -6.350601682877086152e-01 -7.618291301028239371e-01
-5.800938567634384979e-01 -6.158763942585417928e-01 5.330922850130325186e-01
5.419975392601182884e-01 1.414863317156788425e-01 -8.283841411891088580e-01
-6.013082852868017331e-02 -7.530406177737694051e-01 6.552206585901836355e-01
-1.487531378364236601e-01 -3.879277065918351197e-01 9.096068372886260134e-01
5.697860051145461346e-01 4.987460544196555268e-01 6.531433851585978223e-01
1.291419995273801191e-01 -6.412684616608037569e-01 -7.563710095166632508e-01
-4.230081413332567597e-01 3.797402146254493238e-01 -8.227159180190943832e-01
-5.204222454317180002e-01 7.824994594118115376e-01 3.418410193058046276e-01
5.721221042260363765e-01 -6.117367705152971791e-01 -5.463098218552243646e-01
5.068274653828039877e-01 -7.898832713167310837e-01 -3.452685013545573334e-01
6.937285063199465085e-02 -9.902910862727962726e-01 -1.204614961049215865e-01
2.343704612197845538e-01 -7.405383293497407315e-01 6.298201883645206944e-01
9.175570365182436072e-01 3.630858914617154376e-01 -1.620423406314230041e-01
-5.453503493353176745e-01 3.572621432433142341e-01 7.582590305990695168e-01
-5.191295804452671359e-01 8.513228745942719167e-01 -7.585408294394263562e-02
-3.050032558952842088e-01 9.428889111145775104e-01 1.339160751756186818e-01
7.853468070502949150e-01 6.190295459762024111e-01 -5.728338712362532163e-03
-2.763942857052674729e-01 9.598355709164694272e-01 -4.818584473608538560e-02
6.949061067286562698e-01 -5.054801069812419057e-01 -5.114639423042973698e-01
-5.336279409077162444e-02 -4.970272867408850326e-01 8.660925403453259008e-01
-1.085440239206869328e-01 -8.779193705995110841e-01 4.663429785010854700e-01
2.462631038965190991e-02 -9.994909380540751842e-01 -2.028323407096310066e-02
7.301264423612210397e-01 -6.782697114584649301e-01 -8.285877553402030971e-02
8.089761549533057428e-02 -9.878708359892446333e-01 1.325397570885073484e-01
6.249768077192837668e-01 7.785509036347164624e-01 5.711812551703521895e-02
8.448172456908999983e-01 5.170855075960983926e-01 -1.375005426073902803e-01
2.976315906014545543e-01 6.757884425159202957e-01 6.743333131604538622e-01
-9.313383254833974556e-01 -1.314112584403940298e-01 -3.396174386584017157e-01
-1.207950092702638478e-01 9.609971149847336136e-01 2.487832605430186916e-01
-2.092766607426390091e-01 -9.522684069832478837e-01 2.222344715160045059e-01
7.068525272319349240e-01 -2.193329765063669057e-01 -6.724972491859606549e-01
5.910321320498573838e-01 6.149213542725011361e-02 -8.043007746889200282e-01
-9.606757579214646459e-01 2.766779661312890881e-01 -2.348172053902331316e-02
5.175007788530742170e-01 5.508127563313731656e-01 -6.548268865502523406e-01
5.174945496150690216e-01 -5.982037821290733248e-01 6.118428116478685785e-01
-6.837895850914914586e-01 7.293909313554800544e-01 2.051030416136497350e-02
-6.084929494114801329e-01 -5.312682237318250289e-01 -5.894831676726225433e-01
1.371541354049826411e-01 5.015629916434982682e-01 -8.541799040921856934e-01
1.743162254443566747e-02 -6.776794007889919147e-01 7.351508472971660657e-01
7.387670446187984963e-01 -5.976115902110165079e-01 3.115824786965182835e-01
3.718115859828325931e-01 -8.375197909055888124e-01 4.003957347055405180e-01
9.384788860499313490e-01 3.306778453628331782e-01 9.954668766299694382e-02
-1.509910631731478103e-01 -8.545625761497601669e-01 -4.969149849683827114e-01
8.826389185517204972e-01 -4.849955177606767032e-02 -4.675428674842233012e-01
-7.902857356329759941e-01 6.122441866619365847e-01 -2.460715249088765710e-02
9.085210589885407695e-02 -5.022541525795171102e-01 8.599341027487946709e-01
-1.950063970574841821e-02 9.981426633494587808e-01 -5.771437128406987915e-02
5.774323216165051093e-02 -9.632861816795860177e-01 2.621935379155816426e-01
2.555859951130783347e-01 3.960565667088805641e-02 -9.659747362440310736e-01
4.910826717085644000e-01 1.879632128505100974e-01 -8.505925229876477589e-01
-5.629279747525840483e-01 -5.363003299248143563e-01 6.288831778347145907e-01
-8.622250725865131596e-03 4.618142243474980813e-01 -8.869347659116419980e-01
-4.351150627409891003e-01 9.003673259275258856e-01 3.682469011619634788e-03
3.880967077483977179e-01 -8.748591406935797288e-01 -2.898317259717196337e-01
1.376153958280677547e-01 5.691538919625822590e-01 8.106329934655568392e-01
-1.565679561849175061e-01 5.816890803336097759e-01 -7.982006570510430388e-01
2.458753123488319203e-01 -8.373074637299852130e-01 -4.883252419847085024e-01
1.750798923341563007e-01 8.197022698841801569e-01 -5.453762188131995314e-01
-9.833750640364762319e-01 1.411972459467264462e-01 1.141788998384366816e-01
-3.845112436604999351e-01 1.905317584515689722e-01 9.032434624839577042e-01
9.008469496619506689e-01 -1.290256566045720754e-02 -4.339450392436081105e-01
5.831799515308410120e-01 -7.923386558874346841e-01 -1.791663989674937008e-01
8.097292530348206840e-01 -5.783724379796599813e-01 -9.911538611706995072e-02
3.395870026711776957e-01 9.356180701686777068e-01 9.643388611190853443e-02
-8.091454283855796792e-01 5.397660707489181364e-01 -2.322418235180533641e-01
-2.941332294859985708e-01 -6.074035634474017620e-01 -7.379339770084686334e-01
-1.560699676499616440e-01 -6.367096444087465557e-01 7.551443530310132379e-01
-2.407947795147191150e-01 -7.754695217670954932e-01 -5.836650537498114799e-01
7.823984762364099010e-01 5.520761472454992561e-03 -6.227536796966423038e-01
-3.072521785412153372e-01 6.181414115526141506e-01 -7.235311286360931460e-01
-3.001133775012247984e-01 -1.160626205509765752e-01 9.468164704712561663e-01
6.220898300789511337e-01 -7.364647343315665617e-01 -2.657516479690700817e-01
-4.907578240106847955e-01 8.605338059309211030e-01 -1.365222583403220558e-01
4.467034798800444406e-01 7.081529185683655969e-01 5.467864711074738038e-01
8.994648417694405262e-01 4.126968116106589091e-01 -1.436813839962281514e-01
5.933877602299516552e-01 -7.604058850923136603e-01 -2.639580571345689908e-01
-5.913274993223083253e-01 3.172704305058265395e-01 7.413981807853811112e-01
-6.959574864740925015e-01 -4.044270402091273975e-01 5.933649350680810786e-01
1.843303762811081825e-01 -9.126272231861606299e-01 -3.648751346414040864e-01
3.439259907349461742e-01 8.796000226167273173e-01 -3.286620043595522289e-01
4.333209751542286270e-01 -6.899177413090759048e-01 -5.798676079230253855e-01
-5.202231910425018091e-01 3.107581793852564056e-01 7.954855029770923069e-01
9.858193244370772046e-01 3.238536608148669810e-02 1.646555423609923352e-01
3.596879377230663422e-02 -7.266446361572117540e-01 -6.860712926646316268e-01
8.567063900595911496e-01 2.021214841235376425e-01 4.745535448047587535e-01
5.056783390629538966e-01 5.907764597960690756e-03 8.627018695470569654e-01
-2.477796248621086730e-02 6.049757008003467940e-01 -7.958583127769423005e-01
-8.663073038908177814e-01 -4.984730311845320672e-01 3.219149588209547358e-02
7.200301624079850915e-02 -3.978533668810890211e-01 9.146191907638986374e-01
-5.432880679193823337e-01 7.451045319191863525e-01 3.868556730486382156e-01
-8.595608674102263314e-02 -5.248114745842518136e-01 8.468674437578014302e-01
-7.434556498098601196e-01 -1.209503938074102530e-01 -6.577573253135468034e-01
9.626061279498349110e-01 1.138353852249139736e-01 -2.458270682901328719e-01
6.090809909252969945e-01 -7.457351799493422417e-01 2.699988664409175843e-01
2.811133532128805568e-01 9.565677658828745100e-01 7.715822651705075974e-02
2.424891968991466362e-01 -5.245054430231639309e-01 -8.161452258184699327e-01
6.662953432969929111e-03 1.458542411182706944e-01 -9.892836526494124261e-01
-7.038414617186923294e-01 -3.228989305018333811e-01 -6.327270165296141613e-01
2.552814207024223792e-01 -9.114351192394228862e-01 3.226723100316662984e-01
5.619870733119746165e-01 -6.735291989820120229e-01 4.801343015749766630e-01
9.984809486195900252e-01 3.399460421892654691e-04 5.509700246303844695e-02
1.136940079850172619e-01 8.925515534166538201e-01 4.363775854026200607e-01
7.954267590586381331e-01 1.865635412047825792e-01 -5.766197326372055620e-01
-3.145339356515862717e-01 -6.910101464223007417e-01 6.508251538354631327e-01
5.677821532760529699e-01 1.282027821110670318e-01 8.131343511869308927e-01
-9.982419095797170350e-01 -5.809685970148835421e-02 -1.174073470723993942e-02
4.685045613958240818e-01 6.896970324775691941e-02 8.807648130944054632e-01
-5.074549836302839623e-01 5.792930093020846050e-01 6.378942302314100088e-01
3.959627568467782854e-01 -8.488323555145429467e-01 -3.502814974016354443e-01
5.255733225402517972e-01 6.673386978827113847e-01 5.276663196966503433e-01
-7.033295714335663362e-01 -2.733169329871615316e-01 6.562205178821881590e-01
-1.106258655877441210e-01 -8.614761836872025791e-01 4.956013547224175086e-01
-3.280428531947885418e-01 -1.222244671584357539e-01 9.367225128583485105e-01
-8.214429422960211058e-01 5.408981037948523696e-01 1.807228094712695077e-01
-4.206230108256538425e-01 1.798640184505840567e-01 -8.892273149373953745e-01
3.369028178174839350e-01 5.385206430089086727e-01 -7.723289509010463627e-01
9.085165750041520605e-01 4.055422356203681189e-01 1.006634395933241055e-01
7.999612237977146156e-01 -5.129485107544086153e-01 -3.113613105941344106e-01
5.010427164851583015e-01 7.287457198387274904e-01 -4.667824676162421471e-01
7.981318654071185570e-01 -9.752016156141601888e-02 5.945379243671412572e-01
-9.430555921541418085e-01 -9.980618802950814994e-02 3.173088005993835448e-01
4.543377702579202149e-01 7.365905307175909522e-01 -5.010105593440512539e-01
-2.120609025732594077e-01 8.799078162164086780e-01 4.251969056344192532e-01
-7.297921529342268898e-02 1.120094547625353487e-01 -9.910236708469458700e-01
5.773165753607837486e-02 7.502989012096298316e-01 -6.585731656860603911e-01
2.364941135148122264e-01 7.415385204601210312e-01 -6.278464437636466222e-01
4.819705782296487828e-01 -6.773188819594354593e-01 5.558268560102133105e-01
-3.429579471893296483e-01 -7.886758950614967123e-01 5.102648126302929965e-01
-2.437364754672102507e-01 1.077661306005196218e-01 9.638355625428095541e-01
1.221907309143177994e-01 4.215716864382519913e-01 -8.985247567386404066e-01
